 4.2168597610e-1   2.3689494350e+0   3.8368484150e-1
-9.5487206420e-1   1.0589310760e+0  -1.1576630900e-2
 2.3855257050e-1  -1.9808398460e+0  -7.5319140380e-1
 1.5528049620e-1   1.3186015150e-1   1.6781075780e+0
 1.1887875070e+0   9.5077253300e-2   5.4610858370e-1
 1.7070566100e+0  -5.8397797690e-1   1.1152028650e+0
 5.1371581330e-1   1.0128094800e+0   2.2388982160e-1
-1.2224158860e+0   1.3379005680e+0   7.0768137610e-1
 1.1430753840e+0  -2.9249434950e-1   1.7348851540e-1
 6.2020359340e-1  -9.0150540090e-2  -1.8227180170e+0
 2.5753941470e+0   6.7666713590e-1   7.9279459770e-1
 1.6240870250e+0  -8.2081047110e-3   4.6588104680e-1
 2.0989732290e-1   7.9755687930e-1   5.4118182210e-1
 2.0489352560e-1   2.6700851700e+0  -5.4223848570e-1
 1.9848595810e+0   1.2846293720e-1  -7.0959165570e-1
 3.2226792110e-2  -1.7737100380e-1   4.3781255100e-2
-1.5437363690e+0   4.0595785460e-1   1.4088957740e-2
 6.1484542370e-1   8.9386125690e-1   1.1154241320e+0
 1.0057257560e+0   1.5190257840e+0   1.4714886470e+0
 5.2700545090e-1   1.8216240910e-1   3.7482370160e-1
-5.1104304940e-1  -7.5607737790e-1  -4.5033827080e-1
-2.3276111650e+0   5.5836719570e-1   1.1234665490e+0
-7.5908649820e-1  -1.5678638270e+0  -1.1244808910e+0
 1.3830271960e+0   1.5365319860e+0  -2.2838603730e+0
 7.8826900180e-1  -1.2158096310e+0   1.2968345800e+0
-1.7501657460e-1  -6.6282151600e-1   8.2545357620e-1
-6.1094887660e-2   9.0466406670e-1  -4.3685910980e-1
 1.1035140910e+0  -3.7184249360e-1   1.1841834740e+0
 1.6664885660e-2  -1.3250322260e+0   6.7971235100e-1
-3.7055557570e-2   1.8856956370e-1  -4.2452551230e-1
 6.9139197550e-1   6.3050610870e-1  -1.3615741380e+0
 7.3703086220e-1   1.4338169780e+0  -3.7841756280e-1
 3.2223878490e+0   1.8714133260e+0   1.7573615220e+0
 5.5835788670e-1   1.9898543620e-1  -1.7953805330e-1
 1.1295358480e+0  -1.5032446700e+0  -1.7241395150e+0
-2.0794689960e-1  -1.1445536590e-1  -1.5941745940e+0
 1.0916655590e+0   1.4822387770e+0   4.5459724170e-2
 3.4438968530e-1   1.3912780210e-1  -1.5899350760e-1
 6.4920473770e-1   1.2559752600e+0   3.3777284770e-1
 1.4565886550e-1   4.2450446560e-1  -5.2783408870e-1
-6.2504103250e-2   1.9804054700e+0   1.9891522640e+0
-1.7875649900e-1  -5.3252556990e-1  -4.4351335320e-1
 5.9868411760e-1  -5.4389158490e-1   5.0145729220e-1
-8.3401034070e-1  -1.5792472850e-1   7.4813461300e-2
 5.7971679180e-1   3.0463063490e-1   1.7944560250e+0
-8.9825190790e-1  -1.8980247700e+0   7.9813135570e-1
 1.1158705250e+0  -1.2625218090e-1   9.2253779360e-2
-9.2711344450e-2  -7.1534699750e-1  -6.4724006490e-1
-1.0109381620e+0  -5.0166612400e-2   9.5029490730e-1
-1.9199224410e+0  -1.1892519280e+0   3.0480272320e-1
 2.0076982650e+0  -1.3347203550e-1   7.1915614100e-1
 2.0255557070e+0  -4.5263003980e-1   6.6336748680e-2
-1.4752829690e+0  -4.5277932980e-1  -1.9814033620e+0
-5.1120500250e-1  -9.2118616860e-1   4.4489376370e-1
 8.3003830670e-1   5.9854820340e-1  -1.9294370070e+0
 4.4433945290e-1  -1.6567223840e-2   1.3203281470e-1
-1.0556362220e+0   1.2025975230e+0   1.7415576110e-1
 1.8224306580e+0  -4.5243193250e-1  -1.0149657550e-3
-2.8758789330e-1  -3.4785073500e-1   2.6690578530e-1
-1.7665781470e+0  -1.9083826900e-1  -6.1644927980e-1
 1.1756326710e+0   8.1960390520e-1   2.9433557730e-1
 2.5835115870e-1  -1.0450161240e+0   1.9212183110e+0
-6.4167007950e-1   1.5762307260e+0  -1.1679179210e+0
 7.0973225510e-1  -9.3330063080e-1  -4.9459153350e-1
 1.3870782100e+0   3.3020759960e-1   3.2848716810e-1
 6.8163186910e-3   7.2395820720e-1   1.2989930120e-1
-1.7432116130e+0  -2.4210252340e-1   7.8995311920e-1
-1.1731889750e+0   2.9958187230e-1  -1.0399846450e+0
 2.7304268810e-1  -2.0999666950e+0  -1.0618441640e+0
-1.9261247010e+0   7.4103450760e-1   9.9772430560e-1
 1.4621727560e+0   7.1545818620e-1   2.4169072760e+0
-8.3798560670e-1   5.4830796580e-1  -6.3490854050e-1
 8.0103405650e-1  -1.2836115640e+0   3.2006029510e-1
 1.2887257260e+0   1.1881841840e-1  -1.0566775980e-1
-6.7977729230e-1  -9.2201369820e-2  -4.8847449220e-1
-9.4412170100e-1  -1.5420102980e+0  -2.7303301260e-1
 4.1936971780e-1   2.0810985820e-1  -1.4202544570e+0
-1.1404912600e+0   4.9321619940e-1  -1.7394144550e-1
-5.8518030540e-1  -2.7313199740e-1   4.4901224200e-1
-2.1337913330e-1   9.3538565330e-1   6.0294684870e-1
 6.5896340400e-1   7.2077617460e-1   5.9222048300e-1
-9.5051401550e-1   9.5057175660e-2   5.4672788130e-1
 4.8027978990e-1  -5.9374951170e-1   1.3581222230e+0
-2.5698152990e-1   3.2342620080e-1  -3.7179679310e-1
-6.4303612410e-1  -1.6757820080e+0   1.5554183680e+0
 2.6076515080e-1   6.9373238930e-1   5.2542484840e-1
-4.7842808210e-1   9.4075121300e-1   2.3595520460e-1
 5.0210698170e-1   6.4203926580e-1   8.7305033860e-1
 2.1101685150e+0   5.3809247680e-1   6.0412035500e-1
-7.8874880300e-1  -9.9822354990e-1   2.0927035650e-1
 2.5280196810e+0  -3.3900086180e-1  -8.8675344170e-1
 1.1688119450e+0   1.2591850990e+0   3.6369407480e-1
-1.8634885440e+0   9.1792736310e-1  -7.8690471560e-1
 2.7572921610e+0  -2.9824213980e-1   9.9274318890e-1
-1.3244965000e+0  -6.0269255180e-1  -3.3990667540e-1
 1.1746937630e-1   1.7162390600e+0   6.8090023370e-1
 1.2965285410e-1  -2.5089991560e-1   7.1170625790e-1
-2.8154799400e-1  -5.9423315800e-1   2.6244995480e-1
 1.0508415560e+0  -7.9358754110e-1  -7.4003819890e-1
 7.1037063560e-1  -1.3606952340e+0   9.3705435460e-1
-6.5700045580e-1  -1.6153767730e+0   1.6381046110e+0
-1.6570101160e-1   6.4400955940e-1   3.7653694050e-1
 1.1037111190e+0  -1.9113866660e-1   7.0750890490e-1
 6.3437656620e-2  -5.7981352130e-1   4.8850551800e-1
-4.8426394740e-1  -1.0915141220e+0   3.3943965110e-1
 1.8020384120e-1  -3.4950929840e-1  -2.6294930220e-1
-1.2394233360e-1  -1.0344186030e-1   1.6259343640e+0
-8.1545001650e-1   1.2356054770e+0   6.0670619270e-1
 6.4421182640e-1  -8.5176244910e-2   2.2039811220e-1
-1.1840860900e+0   6.5910988620e-2  -1.4149344600e+0
-3.4724766550e-1   1.1892494230e+0  -6.1224748090e-1
-5.6347540870e-1  -8.7022505940e-1  -3.4059020880e-1
-1.1009342540e+0  -4.9879427500e-1   5.9151094360e-1
-1.1409779380e+0  -1.3376164060e+0  -4.5767007730e-1
-1.3570120140e+0  -1.2064861140e+0  -2.4274278960e-1
-5.2832159070e-1  -4.0293574290e-1  -9.8928077700e-1
 9.5718784740e-1  -4.4081970950e-1  -6.2857610830e-1
 6.9597728960e-2  -3.9912857250e-1   1.5216289940e-1
-8.8844742640e-1  -1.5119031040e+0   6.6559544720e-1
 1.1671503400e+0  -6.9124818870e-1  -1.2136460640e+0
 4.8333675980e-1  -9.4893977960e-1  -3.8901105620e-1
-4.6005988500e-1   1.1789416300e+0  -7.7791085520e-1
-1.0304272490e-3   1.3424888740e-1   2.6590477770e-1
 4.3329082800e-1   4.9732908320e-1  -3.1714874280e-1
 6.2239849730e-1   5.1032278230e-1   1.4309924710e+0
-7.5384330520e-1  -1.7952164170e-1  -9.9919598760e-1
-3.9834242300e-2  -1.4979914270e+0  -2.0630305020e-1
 1.4933553140e+0   1.4875350050e+0   5.3626755980e-1
 9.9075802900e-1  -3.5188028430e-1  -7.1771365610e-1
 8.7779558620e-1   1.2758859100e+0   1.1520718130e+0
 1.6379270600e+0  -2.8626645470e-1  -1.0344847350e+0
-2.2128403490e-1   3.9237500440e-1  -2.4532335700e-1
 9.5942010080e-1   1.0508661480e+0   9.7661496180e-1
-1.7764278600e+0   1.9921397030e+0   1.7286833040e+0
 1.9925919020e+0  -8.4045155720e-1   3.5814203800e-1
 4.0127010950e-1   6.9340849790e-1   8.8875728930e-1
-8.3639220050e-1   4.7203578850e-1  -6.4535714630e-1
 2.1454849580e+0  -4.1553194040e-1   9.5772153320e-1
-1.2115914300e+0  -6.3192300240e-1  -7.3929584470e-1
-2.2420337550e-1   7.1640843440e-1   3.2805302600e-1
-7.5994223410e-1   3.8853855220e-1   2.7346469960e-1
-5.2445560640e-1   9.6908068630e-1  -4.3590071550e-1
-6.8735142730e-2  -1.0664527910e-1   3.4079553200e-1
 1.5480618960e+0   7.9194431180e-1   1.2965006050e+0
 1.6396557690e-1  -6.8525547090e-1   1.0563645720e+0
-6.7371445350e-1  -1.0595412130e-1  -1.2522221590e+0
 1.6044669430e+0   1.3411420630e+0   1.4795614450e+0
-1.8983827160e+0   6.0505007470e-1  -2.2508509940e-1
-1.1230206970e+0   1.3758902040e-1  -8.6001332680e-2
-4.4428940490e-1  -6.8363205360e-1   3.1493739680e-2
 3.7734937310e-1   4.3392296370e-1  -4.1865693300e-2
-5.5646322050e-1   3.9274468710e-1   1.3995726980e-1
-1.4785360530e-1   7.8997933250e-1   2.6029228170e-1
-1.0756606630e+0  -1.0205390620e+0  -4.5858028430e-1
-8.8569526750e-2  -1.4196136140e-1   3.2171943030e-1
 9.5503632420e-1  -7.9670209990e-1   1.5401478140e+0
-5.6839721790e-1  -8.0390139970e-1  -3.7630513850e-1
-5.3793813850e-1  -1.3184782200e+0  -1.3137624520e+0
 7.6780524350e-1   8.7321741090e-1   1.1443778520e+0
-1.2096883720e+0   4.8510488510e-1   8.1954764310e-1
-1.2891897040e+0  -3.7151491050e-1   7.8242863530e-1
-1.4552124960e-1  -2.7874614840e-1  -1.6628534370e-1
-1.2325530700e+0   1.2098841690e+0   5.1469470620e-1
 4.0314510620e-1   4.2769784060e-1  -1.1391592990e-1
-3.4741193290e-2   3.8566044560e-1   9.6529123260e-1
 1.5795632250e+0   4.5983574740e-1   2.6461025640e-1
 5.8684381750e-1   1.2848098990e-1   5.1948136160e-1
-1.7349098650e+0   3.0774112970e-1  -9.6440958700e-1
 9.2450904340e-1  -4.0083620190e-1  -1.2461399040e+0
-2.5585609840e-1   2.9033004760e-1  -7.9159045980e-1
-7.3307031350e-3  -4.3519887080e-1   1.8433689970e-1
 4.1064666520e-1  -1.1386104970e+0  -1.2301679290e+0
-1.9699172570e+0   2.6061815680e-1  -2.1614195930e-1
 1.3982947280e+0  -3.8797885270e-1  -2.8616451010e-1
-1.3551559950e+0  -2.3241055220e+0  -4.9191363940e-1
-1.6670519470e+0   2.4305449640e-1   1.2390569060e-1
 3.3182177560e-1  -9.7188723440e-1   1.3229340050e+0
-2.7421115240e-1   1.7631609050e+0   3.3412838060e-1
-2.2482052400e-3  -3.2461092770e-1   3.9313987610e-1
-4.3056423000e-1   2.2533674110e-1   9.3081727770e-1
-1.4225863240e+0  -1.0892475330e+0   7.2839444200e-1
-2.4742779140e+0  -1.8312406000e-1   1.3529105840e-1
 4.5760142190e-2   4.9540351020e-1   1.7365698200e+0
 7.6545561760e-1  -6.5199737150e-1  -1.4156178680e+0
 4.6884042110e-1  -1.7697469380e-1  -2.3770653510e+0
-3.6561859000e-1   1.3368789720e+0  -2.2453613530e+0
 6.6250671050e-2   8.8818784350e-1  -1.4445378230e+0
 2.6842370340e-1  -2.3738186080e+0   1.0256296320e+0
 2.4276239530e-1   7.3522489440e-1   4.2433950630e-1
 1.8390920650e+0  -7.3047128040e-1   1.4967769550e+0
-1.4976447550e-1  -5.8466819930e-1   6.3302964100e-2
-3.8938062990e-1   2.5823090640e-2  -7.5537026150e-1
 2.0614851150e-1  -2.7314184910e-1   1.0195751160e+0
 4.5124030500e-1  -9.0921746240e-1   2.8963713650e+0
-5.0101326190e-1   5.8241071660e-1   3.4026134540e-1
 4.3368289640e-1  -5.0753582050e-1  -1.9045093830e+0
-1.1583629050e+0   1.1068307610e-1  -1.3351647130e+0
 1.3891324760e+0   8.9147545620e-1  -6.3153209980e-1
 1.6932060890e+0   9.7413530210e-1  -1.0156919970e+0
 1.0215897770e+0   7.8197307450e-1   1.3922315820e-1
-1.4251517690e+0  -2.4835529900e-1   1.9830900240e+0
 8.2691403100e-1   6.6601138460e-1   5.1110027560e-1
-4.2223448050e-1   5.5955425130e-2  -2.0353068040e-1
-2.7563552560e-1   2.1752120120e-1  -3.9689884140e-1
 1.2081160470e+0  -8.1565623970e-1   7.2984788680e-1
 6.3180791670e-1  -9.8599617690e-1   8.6983831190e-1
-4.9643755910e-2   1.0338668460e+0  -4.1642825270e-2
-4.1277466860e-1  -6.8481406030e-1   5.4257739430e-1
 4.8087182400e-1   2.5208319370e-1   3.7547254190e-1
-8.1697750470e-1  -5.1532404350e-2  -1.1148373130e+0
 1.6000457190e-1  -3.4319421120e-1  -8.6083540320e-1
 5.7133248680e-1   4.0432846280e-1   1.0173798860e+0
-1.1045051650e+0   5.5982340350e-1   5.0971863330e-1
 6.5331666770e-1   3.0921713480e-2   1.3291162030e-2
-9.0749573360e-1  -1.4728615850e-1   1.4730558070e+0
-1.3419164140e+0   3.8442225690e-1   9.7997393600e-1
-1.2372737600e+0   9.8738155030e-2   9.5344486780e-1
 1.2284117950e+0   1.6817102100e-1  -4.7254817910e-1
-1.3905875910e-1   8.9589894280e-1   2.4768645250e-1
-1.7098172360e+0  -3.4690521810e-1   1.1746716380e+0
 2.0344964620e+0   1.4125025560e+0   7.2433180240e-1
 3.8454402000e-1   3.2821418590e-1  -8.0735898110e-3
-8.0608505190e-1  -6.6029678280e-1  -4.0696329510e-1
 4.4005892070e-1  -2.1031944010e-1  -2.7533482890e-1
-1.0620152490e+0  -1.2293135730e+0   2.9888314720e-1
-1.3618879400e-1   5.0876336130e-1  -8.9458576980e-2
-6.8174709800e-1  -9.5532484220e-2  -8.7461726040e-1
 9.1315948720e-1   7.7980930190e-1   9.0243893240e-1
 2.9531930970e-1  -1.1481513760e+0  -2.3310167210e-2
-1.4064498660e+0  -8.3461033770e-1   1.6960885840e+0
 3.9104565250e-1   1.8563883220e+0   9.3637698670e-1
 1.1545910350e+0  -5.8891843490e-1   4.0895737210e-1
-1.1151247730e+0  -5.4987090340e-1   2.0382558660e+0
-5.4488356720e-1  -6.2852214230e-1  -3.6899412370e-1
-1.0313653650e+0   2.2383272910e+0  -1.0939051130e-1
 1.3277371380e-1   1.8780486260e-2   1.2091648470e+0
-9.9299136730e-1  -3.6644757050e-1   1.8877254560e+0
-1.3660133960e-1   1.5713369580e+0  -3.7331147210e-2
 1.5213410610e+0   2.0659316550e+0   3.0680683920e-1
 6.5049061220e-1  -8.1191985970e-1  -1.1841630780e+0
 3.1042693670e+0  -6.1955523180e-1  -1.0861409610e+0
-9.3152701340e-1  -9.8368962240e-1  -1.5837360870e+0
 1.1798788170e+0   8.6095815430e-1   2.0670342640e+0
-2.3675143950e+0  -1.1641201440e+0   4.8849139040e-1
 1.4922880930e+0  -7.3875865540e-1  -3.9133180510e-1
-6.6806811050e-1   4.3944952820e-1   1.6873287940e+0
-1.3119024750e+0  -8.7157281210e-1  -5.9933017550e-1
 1.1463008420e+0  -6.3837217770e-1  -5.6812845450e-1
 3.1240422790e-1   1.3612393510e-1  -3.2067326500e-1
-8.6904874290e-1   7.4795112210e-1  -9.3385454180e-1
 1.0569684480e+0  -7.3555926190e-1   8.2944391930e-1
-1.5307243200e-2  -6.3909707300e-1   5.0303306410e-1
-5.5691512350e-1  -1.1070795760e+0  -4.9781259850e-1
 3.1578642230e-1   1.1849753540e+0   1.9046498070e+0
-7.0237777880e-1   6.6956760010e-1  -6.7521294370e-1
-1.4825157380e+0   4.6416918840e-1   9.6987264290e-1
-1.2670994760e+0  -8.5944771900e-1   9.3861895950e-2
-1.2219717330e-1   9.5558020240e-1  -6.3700832240e-1
 9.3176996170e-1   1.3318692360e-1  -2.3349930520e-1
-1.3709927840e-1  -1.6317440540e-1  -8.3502152760e-1
-4.3632513250e-1   1.7782091680e+0   1.6356420240e+0
 4.5373568540e-1  -4.4318300660e-1  -7.3720498110e-1
 7.4778128420e-1  -5.0679491930e-1   4.4985675280e-1
-1.2594607610e+0  -3.2147768830e-1   7.7290241450e-1
 8.1684820980e-1  -1.6407651930e+0  -3.6892128350e-1
-6.8583214130e-1  -1.4993597060e+0  -1.6885344880e-1
-1.2202349410e+0   7.2675820740e-2   2.0078117890e+0
-2.3053969730e-1  -5.5702284150e-1   9.2988138410e-1
 6.9105749400e-1  -3.8575523060e-1   4.5457559360e-1
 2.1464083560e-1  -2.8156585460e-1   1.3563996830e+0
-1.3396217400e+0   5.5085609270e-1  -1.5797488170e+0
 1.8169171570e+0  -1.7991907990e-1   1.4188658290e+0
 8.3648746410e-3  -4.1113261540e-1  -1.6453779030e+0
-9.2656347840e-1  -3.5159173680e-1   2.6511308780e-1
-1.2603781660e+0  -1.1285637670e-1   7.4380178350e-1
-9.9148308710e-1   1.2424893910e+0  -1.4236051350e+0
-8.2111559850e-1   2.3749700290e+0   5.4089895120e-1
-1.3074756840e-1   8.0869216160e-1   1.2356151910e+0
-5.9540104730e-1  -6.7712329090e-1  -7.0451454570e-1
-1.3810043370e+0   3.4594303630e-1   6.0554504120e-1
 1.7939146900e-1  -1.8716656120e-1  -1.8632447770e-1
-5.2807160270e-1  -1.6413778450e+0  -2.6384949700e-1
-3.1503020210e-1   1.0991828330e+0  -1.1128939980e-1
 4.4780953470e-1   1.4814396180e-1  -1.7446126320e+0
-2.3538330100e-1  -1.2671285120e+0  -4.3879050900e-1
-1.4086056910e+0  -5.4435061830e-1  -4.7283374260e-1
-1.7534894150e-1   8.6236147610e-1   8.2393106540e-1
-3.8638931670e-1   1.0774555360e+0  -1.6699085020e-1
 1.8519462350e+0  -7.2956412240e-2  -1.2020326790e-1
-2.0882548490e-1  -2.3588103910e+0  -3.2021071830e-1
 5.3539019670e-1   5.5614502690e-1   1.0263064420e+0
 1.0652523610e+0  -1.5402474990e-1   8.9480066930e-1
 8.0876350250e-1   1.8463328820e+0   3.9671625300e-1
-9.0853856620e-1  -3.0520199940e+0   2.3125071110e-1
 1.4069584060e+0   2.2482080420e+0  -1.0799185500e+0
-3.3543762500e-1   7.2407657000e-1  -1.2497914820e+0
 3.8163794260e-1   3.2372324620e-1  -1.0962176560e+0
-2.5919321690e-1  -3.3440935900e-1  -8.1689081950e-1
-6.7845250100e-1  -6.8966303070e-1  -4.7994148950e-1
-1.4185395090e+0  -1.9784692000e+0  -1.6684404950e+0
-2.3483821750e+0  -4.8959706380e-1  -1.0844274650e+0
-1.6917446020e-1   4.6554495710e-3   5.6962297090e-1
-3.0263223770e-1  -5.9448490950e-2  -2.5074609770e-1
-3.4566090490e-1  -1.0695153770e+0   7.2487476460e-1
-2.7489154690e-2  -1.0114236710e+0  -1.5987198510e+0
-2.5453484290e-1  -9.9333811270e-1  -1.3930789400e+0
 1.2424909970e+0   5.3427286140e-1  -1.1011422580e-1
 4.8826402220e-1   3.1592570730e-1   1.1334654080e+0
-5.5888814730e-1  -2.2876569190e-1  -8.0924150680e-1
-1.3214357110e-1   4.0881136130e-1  -5.8548310600e-1
-1.0129353340e-1   6.8859798580e-2   2.0274756320e+0
 1.3191552700e-1  -1.2722901980e+0  -1.1860387850e+0
 1.0367916500e-2  -6.2963246400e-1   8.0297301830e-1
 1.6908807060e+0   2.7068944770e-1  -4.9308985160e-1
 2.4357972220e+0  -4.8725659780e-1   4.4221030670e-1
-2.6191593310e-1   7.3322606130e-2  -7.4723171480e-1
 1.8626126570e-1  -2.5938571130e-1  -2.3159806430e-1
-2.4746390760e+0  -4.2412049690e-3   4.0315993840e-2
-3.4358504780e-1  -1.9601744500e-1   1.5355066790e+0
 4.2614397620e-1   1.3815924360e+0  -3.5007996080e-1
-1.3127131130e+0   1.4499459170e+0   1.0520304530e+0
 7.5501609280e-1  -9.6900841170e-1  -1.5131324030e+0
 8.0882610770e-2  -6.8954406370e-1  -1.4149145650e-1
 7.9114314770e-1  -7.9082451800e-2  -1.7460024100e+0
 1.7721408470e-1   9.5196923800e-1  -9.9057641480e-2
 1.1261302100e+0   2.7749395530e-1   8.9904810970e-1
 1.8598698920e-1  -4.4624287580e-2  -7.4550631160e-1
 1.2293523150e+0   2.0439535400e+0   5.3327053010e-1
-1.5003351490e-1  -1.4025140350e+0   8.0245491660e-2
 6.8209912760e-1  -1.6604960630e+0   6.6650956130e-1
 1.6757661470e+0  -1.4292599820e+0   5.6577283220e-1
-5.8435359830e-1  -1.0651452960e+0  -3.3027538640e-2
-2.2780427580e-1   3.0973628770e-1  -7.0939952320e-1